ply
format ascii 1.0
comment Generated by the CGAL library
element vertex 966
property double x
property double y
property double z
property double nx
property double ny
property double nz
end_header
25.501 44.945 38.342 0.723628 -0.129847 0.677866
24.785 44.973 39.075 0.6521 0.0426518 0.756933
25.695 49.133 38.664 0.422109 -0.169632 0.890533
25.863 50.563 38.903 0.379017 -0.35224 0.85573
24.912 50.525 39.296 0.480783 -0.323848 0.814843
24.703 46.334 38.967 0.522063 0.0650651 0.850421
26.282 52 39.55 0.37546 -0.497811 0.781801
26.796 53.491 40.315 0.455355 -0.504197 0.733782
24.743 49.096 39.046 0.467359 -0.177482 0.866069
27.252 54.948 40.991 0.536569 -0.438293 0.721105
25.352 52.014 39.962 0.432903 -0.499257 0.750558
-48.844 119.728 31.006 0.786278 0.10573 0.608759
-48.746 118.344 31.163 0.423428 0.413283 0.806167
-48.914 121.146 30.967 0.921049 0.0768465 0.381789
-49.005 122.549 30.768 0.895283 0.00802699 0.445426
-48.952 123.989 30.862 0.814274 -0.07019 0.576222
-48.913 125.469 31.027 0.82629 0.000585022 0.563245
-48.999 126.854 30.889 0.843722 0.182533 0.504791
-49.206 128.269 30.574 0.822345 0.269587 0.501071
-49.483 129.682 30.157 0.80294 0.272127 0.530315
-49.721 131.062 29.884 0.80278 0.363963 0.472309
-50.171 132.485 29.178 0.783767 0.466436 0.410057
44.069 97.36 12.163 0.958475 0.277677 0.0649625
43.661 98.735 12.16 0.944508 0.320156 0.0735232
44.025 97.346 13.158 0.957606 0.279906 0.068141
42.559 101.502 12.163 0.919294 0.387611 0.0682394
44.437 95.972 12.161 0.965807 0.251075 0.0646466
29.523 72.727 42.682 0.564764 -0.423993 0.708005
-35.704 68.111 -16.092 -0.347689 -0.456512 -0.818968
27.827 79.537 45.564 0.623761 0.0239241 0.781249
35.369 82.169 38.878 0.829283 0.0522608 0.556379
12.948 40.542 44.757 0.147767 -0.0925091 0.984686
33.693 99.48 36.592 0.632141 0.419617 0.651397
23.872 46.331 39.521 0.574324 0.127324 0.808666
23.784 47.692 39.401 0.516885 0.00517337 0.856039
25.971 61.904 44.493 0.385682 -0.053556 0.921076
25.956 63.249 44.484 0.397337 0.0439484 0.91662
35.747 74.144 -13.795 0.791646 0.0409087 -0.609609
54.131 55.371 27.139 0.706454 -0.296956 0.642448
11.931 72.597 54.16 0.367621 -0.128137 0.921106
51.076 56.788 29.795 0.432479 -0.159586 0.887409
52.758 51.033 25.099 0.635781 -0.552032 0.539485
50.706 54.008 29.233 0.5086 -0.35287 0.785372
50.943 55.413 29.582 0.472215 -0.234925 0.849602
30.814 86.228 42.913 0.266489 -0.0791528 0.960582
36.347 102.053 31.638 0.744025 0.376225 0.552161
23.857 49.075 39.523 0.496677 -0.204655 0.843462
38.999 108.356 15.163 0.860895 0.505749 0.0554706
39.036 108.381 14.166 0.851093 0.52342 0.040888
38.131 109.734 15.164 0.838291 0.542793 0.0514285
43.18 79.115 27.263 0.862177 -0.0194793 0.506232
43.238 80.474 27.354 0.88124 -0.075442 0.46661
43.295 84.533 27.498 0.879672 0.05358 0.472553
43.852 87.476 25.169 0.912426 0.160311 0.376536
43.437 87.443 26.153 0.899362 0.182239 0.397413
36.002 103.374 31.134 0.734082 0.399541 0.549081
33.279 56.437 37.444 0.670632 -0.442914 0.595046
32.135 54.969 37.508 0.634497 -0.444464 0.632349
32.442 75.477 41.653 0.675725 -0.294641 0.675709
28.985 90.239 43.809 0.486492 -0.0160168 0.873538
31.713 95.563 40.745 0.595887 0.332412 0.731041
31.418 96.896 40.312 0.609154 0.350461 0.711413
30.646 96.895 40.957 0.590811 0.336852 0.733126
-63.912 111.01 -13.947 -0.517303 0.313422 -0.796344
-62.923 112.473 -13.848 -0.442319 0.416983 -0.794027
-78.326 80.43 34.194 -0.601299 -0.45259 0.658485
-77.609 79.616 34.201 -0.580463 -0.51811 0.628192
-77.605 80.463 34.886 -0.586329 -0.458151 0.668069
28.061 41.68 31.417 0.649057 -0.559185 0.515789
-35.871 104.26 -20.691 -0.182845 0.33345 -0.924867
-40.727 69.62 -16.6 0.223711 -0.422482 -0.878329
-41.716 69.628 -16.861 0.185666 -0.448873 -0.874094
-40.731 71.072 -17.256 0.249485 -0.351023 -0.902519
-53.546 50.077 -6.094 -0.644755 0.116989 -0.755384
42.125 100.042 0.179 0.895818 0.313057 -0.315446
-42.365 110.099 -18.526 -0.13055 0.507127 -0.851927
-42.505 108.838 -19.216 -0.122299 0.464993 -0.876827
-87.53 86.102 15.468 -0.870977 -0.48716 -0.0638307
29.229 102.131 38.919 0.554196 0.560839 0.615082
29.96 102.103 38.23 0.602544 0.552076 0.576326
28.734 103.42 38.199 0.579562 0.504763 0.639783
30.475 100.799 38.981 0.629782 0.503216 0.591733
29.462 103.445 37.491 0.567422 0.438659 0.696858
29.171 104.768 37.074 0.555616 0.2626 0.78888
28.382 104.75 37.685 0.564464 0.360815 0.742423
29.356 80.876 44.266 0.540462 0.154121 0.827132
29.026 106.116 36.871 0.558152 0.169554 0.81223
-16.254 183.109 -20.088 0.765326 0.0174738 0.643405
24.759 92.911 46.503 0.472104 0.223141 0.852834
24.121 96.885 45.587 0.485478 0.347137 0.802376
-23.309 162.498 -5.778 0.196016 0.826495 0.527716
-21.924 161.037 -3.769 0.390316 0.668419 0.633143
-24.337 163.9 -7.282 0.252642 0.72861 0.636631
27.799 72.716 43.688 0.430311 -0.321788 0.843377
17.671 65.889 50.099 0.509861 -0.211854 0.833763
30.077 75.487 43.513 0.507086 -0.21282 0.835208
30.199 76.844 43.7 0.519731 -0.148906 0.841253
29.352 76.843 44.236 0.519331 -0.161282 0.839216
29.193 75.471 43.989 0.477843 -0.236253 0.846079
29.867 74.091 43.197 0.539839 -0.332069 0.773501
29.002 74.112 43.695 0.440793 -0.331359 0.834208
28.682 72.686 43.225 0.478173 -0.389988 0.786931
28.314 71.297 42.677 0.571041 -0.277443 0.772617
28.161 69.95 42.435 0.569926 -0.0560721 0.819781
28.24 68.615 42.545 0.532553 0.137551 0.835145
29.132 68.63 42.078 0.414799 0.168954 0.89409
43.481 83.245 27.176 0.896888 -0.00114081 0.442257
-23.012 107.366 -21.842 -0.0638438 0.41112 -0.909343
-24.2 107.431 -21.775 -0.0379818 0.511662 -0.858347
-48.525 121.087 29.747 0.889643 0.0946914 0.446732
-48.463 122.511 29.778 0.846781 -0.119251 0.518403
-48.325 123.967 29.991 0.838136 -0.0696675 0.540994
-48.3 125.41 30.066 0.86083 0.0442555 0.506964
-48.479 126.826 29.899 0.87216 0.188943 0.451263
-48.652 128.248 29.602 0.845938 0.234022 0.479189
-48.901 129.654 29.263 0.833644 0.281732 0.475042
-49.203 131.059 28.827 0.820347 0.401323 0.407396
-61.474 149.784 36.407 0.335895 0.444998 0.830151
58.094 52.375 14.183 0.898206 -0.438442 0.031533
58.588 53.821 15.182 0.933024 -0.354451 0.0618886
41.04 65.67 29.359 0.868163 -0.0615957 0.492441
39.583 95.366 31.069 0.864194 0.238053 0.443283
13.786 37.763 44.336 0.171491 -0.0316859 0.984676
39.88 92.706 31.428 0.882271 0.126703 0.453369
39.771 94.044 31.303 0.882217 0.173689 0.437636
-67.905 171.131 -36.968 0.519014 0.830719 0.201322
40.41 87.377 32.199 0.856302 0.152068 0.49358
41.561 75.197 30.18 0.882739 0.000562329 0.469864
43.831 83.207 26.317 0.93223 -0.00308574 0.361854
43.774 84.485 26.437 0.931547 0.0605864 0.358538
11.037 71.244 54.604 0.498396 -0.0400672 0.866023
11.04 72.584 54.623 0.515324 -0.0673962 0.854341
54.528 62.232 27.799 0.598001 0.0972271 0.795577
37.789 95.438 33.723 0.747604 0.363357 0.555932
23.058 46.326 40.103 0.568093 0.170166 0.805179
46.054 82.03 14.175 0.993765 0.096873 0.0551986
-64.85 99.576 -17.042 -0.444377 -0.0860313 -0.891699
-63.836 99.609 -17.519 -0.407187 -0.149892 -0.900961
-63.856 98.156 -17.322 -0.309967 0.11958 -0.943197
46.031 82.028 15.173 0.994894 0.0932885 0.0385184
34.697 108.688 29.234 0.718558 0.422529 0.552398
34.3 110.021 28.645 0.719466 0.452359 0.52701
35.046 107.363 29.738 0.725619 0.395841 0.562838
35.361 106.017 30.216 0.719593 0.366434 0.589841
35.66 104.701 30.636 0.718848 0.376305 0.58451
-64.889 98.15 -17.011 -0.317717 0.212715 -0.924017
32.891 57.817 38.629 0.584681 -0.348435 0.732626
32.566 56.409 38.151 0.605757 -0.425767 0.672146
32.623 76.847 41.925 0.683365 -0.172637 0.709372
31.136 98.211 39.916 0.633755 0.361486 0.683873
30.839 99.511 39.494 0.649046 0.405532 0.643648
-11.686 178.646 -24.058 0.751607 0.322593 0.575344
36.444 59.095 34.959 0.817295 -0.350257 0.457547
35.758 56.284 33.975 0.770687 -0.375979 0.514471
36.108 57.709 34.473 0.807965 -0.369657 0.458854
36.767 60.514 35.48 0.799633 -0.289516 0.526087
36.941 61.885 35.744 0.784559 -0.200114 0.586875
37.098 63.258 35.999 0.793483 -0.190188 0.578112
37.252 64.611 36.205 0.796093 -0.132056 0.590591
37.315 65.964 36.298 0.789473 -0.0449181 0.612139
-31.863 155.275 -8.938 0.21279 -0.811889 -0.543651
14.532 68.638 52.616 0.496064 -0.067518 0.865657
-35.352 121.762 27.614 0.254211 0.755679 0.603594
12.52 61.666 51.402 0.444727 -0.284348 0.849332
11.663 61.676 51.908 0.578458 -0.191005 0.793035
-73.814 65.744 6.31 -0.656897 -0.735813 -0.164513
-73.251 64.887 7.19 -0.67808 -0.711317 -0.185029
-74.634 66.049 7.561 -0.673245 -0.722198 -0.158654
40.261 88.708 31.94 0.874163 0.153385 0.460774
29.457 79.544 44.41 0.543238 0.0495334 0.838116
28.907 107.44 36.703 0.598405 0.280142 0.750621
-16.871 184.583 -19.21 0.809441 -0.0138165 0.587039
29.436 78.191 44.37 0.539275 -0.0724742 0.839005
24.386 95.56 45.965 0.474794 0.295208 0.829109
23.914 83.584 48.744 0.607703 0.246705 0.754873
24.694 83.582 48.108 0.614105 0.191844 0.765553
24.505 84.906 47.85 0.474685 0.0912107 0.875417
24.536 86.245 47.899 0.429557 -0.0210403 0.902795
15.111 43.423 44.414 0.112797 0.197312 0.97383
27.519 71.313 43.279 0.507611 -0.300216 0.80759
13.585 65.884 52.979 0.362873 -0.254475 0.896418
-60.985 168.641 -59.489 0.991531 -0.129387 -0.0111389
29.202 61.914 42.131 0.712397 -0.185309 0.676869
25.521 116.701 31.799 0.451429 0.602381 0.658293
26.17 115.347 32.744 0.365624 0.616859 0.696997
57.821 53.749 7.176 0.912113 -0.321858 -0.253884
26.4 116.693 31.316 0.40731 0.658271 0.63307
26.57 53.58 -20.726 0.602917 0.0596538 -0.795571
27.884 53.698 -19.769 0.698633 0.0355317 -0.714597
40.988 64.309 29.269 0.823898 0.000405532 0.566737
37.747 104.052 -4.84 0.815076 0.505247 -0.283506
38.143 103.967 -3.872 0.783687 0.54252 -0.302501
-62.793 155.22 -35.61 0.907059 -0.350313 -0.233507
-47.987 121.051 28.756 0.766874 0.179668 0.616136
-47.894 122.501 28.884 0.860541 -0.116317 0.495922
-47.716 123.954 29.11 0.871402 -0.0643936 0.486324
-47.783 125.387 29.071 0.87993 0.0995632 0.464554
-48.002 126.873 28.913 0.876939 0.169652 0.449663
-48.12 128.214 28.687 0.87371 0.222487 0.432585
-48.357 129.635 28.284 0.854514 0.283782 0.435056
-48.685 131.027 27.837 0.830228 0.38614 0.402016
39.898 106.999 13.163 0.877164 0.476801 0.056953
-47.824 129.609 27.299 0.870855 0.279206 0.404544
-48.203 131.003 26.757 0.845382 0.411551 0.340522
40.57 105.644 13.165 0.893687 0.443661 0.0669956
39.071 108.406 13.166 0.850561 0.523152 0.053461
41.399 94.297 -5.777 0.853195 0.349944 -0.386777
41.309 95.72 -4.788 0.870375 0.267702 -0.413259
-7.379 36.723 49.153 0.256128 -0.102467 0.961197
-6.097 37.339 48.748 0.289708 0.0370522 0.956398
-7.231 38.102 48.949 0.244927 0.0893203 0.965418
-21.105 43.109 53.459 0.232771 0.175652 0.956538
46.245 78.448 15.576 0.997663 0.0415275 0.0542494
-11.371 177.173 -23.619 0.721598 0.348648 0.598115
-10.43 175.693 -23.857 0.76082 0.375869 0.529033
30.086 68.646 41.699 0.408713 0.10733 0.90633
41.573 76.554 30.244 0.8973 -0.0199576 0.44097
-59.963 45.547 28.679 -0.45291 0.823926 -0.340615
-59.123 45.458 27.68 -0.399122 0.774616 -0.490584
-61.284 44.277 27.687 -0.478043 0.744762 -0.465622
46.011 75.014 4.205 0.971277 0.072085 -0.226772
-74.921 66.145 8.572 -0.707028 -0.701528 -0.0892741
-73.8 65.12 8.658 -0.680788 -0.727842 -0.0823063
-17.433 62.591 51.79 -0.671116 -0.126038 0.73056
36.984 56.176 32.2 0.7067 -0.312717 0.634652
-29.317 172.724 -7.405 0.777076 -0.327693 0.537373
49.5 49.681 27.433 0.595854 -0.498356 0.629762
50.34 52.581 28.69 0.553939 -0.422893 0.717156
49.949 51.169 28.118 0.588333 -0.465149 0.661438
58.804 67.709 6.149 0.89281 0.29251 -0.342531
38.09 94.129 34.13 0.795744 0.306902 0.522113
-19.206 125.855 22.999 -0.395998 0.842184 0.36594
-66.84 95.243 -17.157 -0.468746 0.172364 -0.866353
-65.855 96.708 -17.316 -0.376129 0.298724 -0.877092
29.268 67.302 42.263 0.486496 0.115594 0.866002
19.295 126.057 1.115 0.457107 0.843071 -0.283343
41.656 83.297 30.396 0.902491 0.00695592 0.430652
31.015 110.075 32.724 0.712847 0.396487 0.578487
33.926 56.401 36.618 0.690664 -0.43793 0.5755
-15.476 160.714 -11.803 0.442664 -0.886175 -0.136902
30.979 50.603 35.776 0.699053 -0.417821 0.580302
-28.477 177.212 -6.077 0.739351 -0.176098 0.649884
32.698 78.195 42.037 0.669178 -0.0848697 0.73824
27.611 53.509 39.734 0.530775 -0.465423 0.708279
27.195 52.072 39.117 0.516902 -0.474426 0.712553
11.914 63.044 52.296 0.486266 -0.364987 0.793933
37.196 69.986 36.159 0.735641 0.0528093 0.67531
37.17 71.329 36.137 0.75262 0.0040503 0.658442
12.574 44.598 44.275 0.197905 0.0838545 0.976628
12.849 43.282 44.628 0.104378 0.22402 0.968979
37.182 72.672 36.151 0.818393 -0.116905 0.562642
38.332 92.814 34.446 0.826559 0.20376 0.524673
38.45 91.471 34.63 0.842112 0.126489 0.52426
38.528 90.138 34.735 0.838573 0.0695521 0.540331
38.577 88.801 34.819 0.827691 0.0460315 0.559293
38.617 87.46 34.847 0.810852 0.033071 0.584317
38.647 86.118 34.868 0.787615 0.0590266 0.613334
37.311 67.312 36.294 0.770571 0.0258052 0.636831
37.264 68.653 36.255 0.749532 0.0736792 0.657855
37.484 76.757 36.643 0.802082 -0.00850652 0.597154
37.46 75.402 36.581 0.826355 -0.093267 0.555372
37.454 78.1 36.619 0.773956 0.0294903 0.632553
37.431 79.442 36.6 0.717194 0.0180072 0.696641
-90.188 139.114 15.189 -0.919733 -0.0939155 -0.381145
-89.898 139.201 14.213 -0.944105 0.0459426 -0.326427
26.726 114.038 33.547 0.364689 0.557581 0.745725
24.843 82.252 48.314 0.665104 0.162592 0.728835
16.259 43.49 44.263 0.178885 0.165171 0.969907
19.983 42.226 42.656 0.549924 -0.0881287 0.830552
40.576 79.326 32.317 0.849427 -0.0651336 0.523671
-33.814 34.272 26.327 0.231283 -0.964273 0.129173
-34.889 34.158 26.202 0.0705833 -0.994213 0.0809809
-34.286 34.047 24.645 0.0794776 -0.994213 0.0722696
-65.864 141.582 -8.401 0.31636 -0.624536 -0.714053
-66.91 120.913 -8.898 0.0376795 -0.0440831 -0.998317
-67.901 120.916 -8.96 -0.0076365 -0.0529781 -0.998567
-66.916 122.38 -8.971 0.011933 -0.0208743 -0.999711
16.819 86.076 50.782 0.42815 0.250198 0.868383
45.842 87.61 10.162 0.994233 0.0666186 0.0840408
45.662 89.011 11.164 0.995326 0.0670962 0.0694539
-47.257 121.113 28.008 0.647235 0.240873 0.723233
-73.865 102.167 -12.348 -0.520155 0.331207 -0.787236
-74.861 102.114 -11.576 -0.599497 0.33232 -0.728125
-73.882 103.582 -11.608 -0.539194 0.38463 -0.749219
-90.401 115.144 30.753 -0.702116 -0.656541 -0.275658
-90.982 116.07 30.318 -0.816673 -0.515812 -0.258811
-90.715 116.093 29.322 -0.783934 -0.580305 -0.220668
-47.32 122.487 27.932 0.812328 0.0156685 0.582991
-47.235 123.92 28.031 0.905203 -0.0592563 0.420829
-47.261 125.357 28.008 0.911209 0.0925897 0.401405
-47.403 126.784 27.79 0.898034 0.166434 0.407229
-47.649 128.193 27.528 0.889229 0.2167 0.40288
-48.731 131.78 26.976 0.817291 0.452275 0.357048
40.708 95.694 -5.807 0.80392 0.310861 -0.507028
40.931 97.119 -4.793 0.842334 0.237979 -0.483569
39.289 99.314 28.831 0.827357 0.322589 0.459801
25.095 34.806 3.199 0.191423 -0.9463 -0.260524
26.361 35.258 3.039 0.203912 -0.930507 -0.304264
8.164 90.454 -31.856 0.477404 0.311032 -0.821793
7.3 90.793 -32.262 0.43871 0.324459 -0.838009
-37.067 157.759 -11.358 -0.13208 -0.527993 -0.838915
-65.005 135.525 -7.973 0.226275 0.072525 -0.97136
-72.948 132.565 -7.812 -0.225085 0.125815 -0.966182
-71.962 134.048 -7.967 -0.2489 0.106123 -0.962698
-27.827 177.181 -6.963 0.761176 -0.252048 0.597564
-28.695 175.698 -6.478 0.783562 -0.282881 0.553181
54.585 60.894 27.875 0.645237 0.0100417 0.763916
22.681 54.98 44.937 0.716182 -0.364955 0.594888
-70.029 143.19 -12.694 -0.172716 -0.942488 -0.286158
27.863 36.718 0.104 0.208878 -0.86941 -0.447769
43.777 80.449 26.234 0.900857 -0.0406674 0.432207
43.732 79.079 26.302 0.903661 -0.0220618 0.427679
44.221 80.437 25.206 0.921897 -0.0279016 0.38643
-70.509 145.613 43.179 0.255991 0.593649 0.762922
27.363 69.942 43.042 0.58129 -0.0788725 0.809865
49.009 48.223 26.701 0.57413 -0.574044 0.583822
30.057 63.272 41.619 0.612263 -0.142752 0.777661
29.319 63.273 42.313 0.682991 -0.106652 0.722598
47.096 45.623 25.458 0.513514 -0.71075 0.480767
48.317 46.698 25.662 0.561368 -0.653416 0.507852
47.623 46.722 26.425 0.525982 -0.642883 0.556816
28.462 102.127 39.566 0.473439 0.55817 0.681397
13.119 91.389 52.489 0.419987 0.400513 0.814371
38.7 84.779 34.951 0.758776 0.0700641 0.647572
38.764 83.444 35.046 0.731777 0.0419073 0.680254
38.781 82.1 35.059 0.735351 0.035122 0.676776
38.807 80.759 35.081 0.76756 0.0042497 0.640963
38.757 78.055 34.957 0.809566 -0.0639905 0.583531
38.813 79.416 35.089 0.795061 -0.0437476 0.60495
-11.981 180.127 -24.483 0.767297 0.328581 0.550717
31.749 53.521 36.931 0.658646 -0.425755 0.620418
31.356 52.068 36.345 0.677016 -0.423118 0.60218
32.73 79.55 42.101 0.652802 -0.0219461 0.75721
32.732 80.9 42.126 0.623239 0.0595837 0.779758
27.565 56.364 41.461 0.584591 -0.385572 0.713854
31.914 80.897 42.698 0.564305 0.0712066 0.82249
-88.654 102.345 12.387 -0.965561 0.241212 -0.0975129
-88.877 100.994 11.394 -0.976385 0.203163 -0.0734727
37.338 74.043 36.398 0.84213 -0.154637 0.516628
38.634 75.353 34.777 0.824123 -0.0867353 0.559731
38.579 73.988 34.644 0.789269 -0.0609672 0.611014
38.688 76.703 34.863 0.829078 -0.0864994 0.552402
13.67 82.039 53.236 0.224674 0.329522 0.917026
18.989 63.155 48.476 0.549406 -0.108683 0.828457
22.787 34.895 0.786 0.368362 -0.884766 -0.285479
38.56 71.301 34.632 0.768867 0.0133204 0.63927
38.573 69.956 34.642 0.780035 0.0282315 0.625099
38.544 72.646 34.619 0.760725 -0.00744519 0.649031
38.609 68.614 34.67 0.79215 0.0264431 0.609753
37.414 80.784 36.582 0.715678 0.0341881 0.697593
-92.524 128.291 28.232 -0.935755 0.242468 0.25607
37.329 84.807 36.473 0.7418 0.0118125 0.670517
37.324 86.152 36.471 0.778175 -0.00817017 0.627994
27.176 112.761 34.213 0.391722 0.530138 0.752002
28.571 63.276 42.99 0.64238 -0.0582057 0.764173
28.511 61.926 42.892 0.695729 -0.141481 0.704233
28.355 60.548 42.652 0.722312 -0.237133 0.649641
16.278 42.12 44.31 0.21821 -0.0359842 0.975238
24.169 80.922 49.096 0.576135 0.0695024 0.814395
24.954 80.922 48.462 0.658968 0.0958374 0.74604
13.339 47.53 45.383 0.427983 -0.572712 0.699165
19.989 43.601 42.684 0.541695 0.0609286 0.838364
28.391 67.293 42.755 0.506419 0.167844 0.845795
25.535 118.038 30.515 0.520629 0.607732 0.599672
60.7 66.503 14.16 0.986095 0.163276 0.0309612
60.445 67.868 14.153 0.958616 0.284482 0.0112079
-67.857 102.354 -15.264 -0.440035 0.21426 -0.872044
-67.9 103.8 -14.701 -0.442062 0.351566 -0.825216
-66.88 103.821 -15.3 -0.466215 0.363549 -0.806521
37.328 87.494 36.474 0.807114 -0.0208354 0.590028
37.341 88.845 36.527 0.831069 -0.0110518 0.556059
37.321 90.186 36.514 0.832497 0.0539397 0.551398
37.261 91.522 36.42 0.812527 0.121126 0.570201
36.878 94.172 35.906 0.789743 0.302173 0.533852
37.126 92.85 36.275 0.804846 0.221199 0.550721
45.924 80.61 4.187 0.98047 0.0334677 -0.193799
-46.773 123.89 26.931 0.879251 0.0949649 0.466797
-46.827 125.328 26.835 0.909496 0.0836995 0.4072
-46.929 126.751 26.776 0.896747 0.162332 0.411695
-47.169 128.157 26.522 0.900405 0.215179 0.378113
-47.362 129.577 26.209 0.891199 0.294107 0.345347
-47.755 130.991 25.586 0.846617 0.407332 0.34252
43.935 97.35 14.16 0.953982 0.288949 0.0801621
44.316 95.966 14.161 0.965928 0.247745 0.0748645
58.113 52.362 13.182 0.892782 -0.450406 0.0086729
22.925 47.673 39.919 0.532527 -0.0104807 0.846348
-37.62 37.654 -29.358 -0.373637 0.238836 -0.896299
38.195 102.007 28.99 0.783973 0.293929 0.546802
11.844 80.662 54.099 0.286529 0.209508 0.934884
-16.197 43.299 51.776 0.346756 0.241418 0.906354
11.002 87.255 54.665 0.375471 0.0865162 0.922787
10.079 87.352 55.07 0.398278 0.150204 0.904883
-20.58 34.226 -20.316 -0.0803621 -0.856062 0.510588
-27.886 165.359 -7.139 0.35927 0.58628 0.726086
34.998 61.941 38.204 0.718085 -0.213125 0.662519
-28.403 166.813 -7.89 0.458349 0.418798 0.783916
-26.219 162.456 -4.724 0.178555 0.82774 0.531944
-27.189 162.441 -4.372 0.180116 0.82691 0.532708
-63.558 170.962 -48.592 0.847801 0.45271 0.276203
-64.089 172.567 -49.571 0.820152 0.460588 0.339425
-64.512 172.574 -48.564 0.7985 0.505173 0.327411
-63.482 166.302 -36.694 0.864019 0.492029 0.106671
-0.498 101.653 44.357 -0.159735 0.416131 0.895164
-50.406 135.839 24.796 0.749702 0.597816 0.283835
12.687 37.669 44.521 0.139942 -0.0144539 0.990054
13.326 36.855 44.466 0.269877 -0.308294 0.912207
-35.85 98.607 -22.569 -0.183463 0.171949 -0.967871
-54.733 73.854 -17.412 0.0797164 -0.548393 -0.832412
-55.73 73.83 -17.443 0.0737822 -0.541579 -0.837406
-54.739 75.379 -18.517 0.0676583 -0.54022 -0.838799
-29.543 168.268 -7.775 0.545036 0.232267 0.805597
41.585 77.9 30.247 0.901544 -0.0380792 0.431008
-24.445 156.552 -7.012 0.29188 -0.932339 -0.213425
32.639 82.231 41.989 0.638466 0.077275 0.765761
31.837 82.231 42.593 0.543551 0.102746 0.833064
16.103 39.337 44.017 0.263806 -0.136977 0.9548
18.946 75.491 52.04 0.490008 -0.165618 0.855841
-63.997 158.311 -48.587 0.911817 -0.407463 -0.0506271
27.906 57.807 41.975 0.642068 -0.331451 0.691295
30.288 103.408 36.947 0.523415 0.390725 0.757212
30.005 104.778 36.523 0.539269 0.292575 0.789676
30.655 102.095 37.477 0.593283 0.496692 0.633492
29.844 106.115 36.3 0.612536 0.225979 0.757452
36.605 95.49 35.518 0.789295 0.358896 0.498203
36.234 96.782 35.021 0.812256 0.362147 0.457264
-37.085 162.227 -13.531 -0.349877 -0.238212 -0.906003
-35.157 36.173 47.192 -0.694415 -0.455668 0.556916
-35.759 36.776 46.58 -0.788584 -0.168201 0.591476
-35.831 35.654 45.797 -0.58483 -0.672382 0.453736
26.76 36.581 0.024 0.162755 -0.859229 -0.485012
32.679 103.442 35.123 0.627142 0.393567 0.672159
-35.862 101.452 -21.942 -0.161273 0.308849 -0.937339
-26.204 163.884 -6.47 0.248296 0.717324 0.650995
-27.221 163.934 -6.163 0.266081 0.704381 0.658064
-72.93 131.104 -8.148 -0.220564 0.199817 -0.954686
-35.859 102.84 -21.395 -0.204769 0.403118 -0.891945
35.272 66.016 38.635 0.645622 0.0386682 0.762678
46.018 48.264 29.417 0.508129 -0.602048 0.615909
44.515 46.755 28.971 0.473854 -0.658618 0.584538
46.527 49.704 30.172 0.540429 -0.492727 0.682024
38.31 63.202 34.225 0.820884 -0.195204 0.536699
38.092 61.815 33.877 0.843955 -0.29138 0.450376
38.428 64.558 34.402 0.819109 -0.15768 0.551541
37.801 60.421 33.427 0.837874 -0.3117 0.448117
29.334 108.769 35.578 0.623949 0.434647 0.649438
28.927 110.086 34.983 0.561701 0.493376 0.664132
28.48 111.435 34.331 0.520613 0.484018 0.703341
28.131 59.196 42.316 0.696156 -0.282966 0.65977
24.168 79.572 49.081 0.534111 -0.0599415 0.843287
24.983 79.578 48.494 0.65085 -0.0112625 0.759123
24.237 72.742 47.331 0.726029 -0.223538 0.650317
24.404 74.113 47.594 0.679514 -0.240116 0.693256
23.522 72.761 48.069 0.672418 -0.186117 0.716391
24.61 75.474 47.902 0.634332 -0.257021 0.729084
23.811 75.49 48.521 0.561012 -0.230162 0.795168
23.641 74.12 48.255 0.626963 -0.194662 0.754337
25.883 60.534 44.359 0.403485 -0.170778 0.898908
28.525 65.965 42.942 0.511727 0.119099 0.850853
27.646 65.954 43.432 0.479268 0.123219 0.868976
27.727 64.618 43.541 0.492817 0.0813684 0.86632
7.247 123.914 -9.505 0.0760679 0.793617 -0.603643
7.347 123.16 -10.666 0.029784 0.846895 -0.530926
6.32 123.167 -10.693 0.0308237 0.833576 -0.551544
37.522 59.03 33.026 0.809612 -0.303413 0.502463
37.274 57.628 32.644 0.768182 -0.298615 0.566326
-71.581 79.12 38.819 -0.469728 -0.38721 0.793363
-71.131 77.726 38.411 -0.44423 -0.404253 0.799524
-70.704 79.127 39.355 -0.479112 -0.398953 0.781849
-62.791 150.662 -7.57 0.978463 0.19941 0.0533405
-62.95 151.043 -6.313 0.94685 0.309125 0.0889753
-62.633 149.615 -6.171 0.981979 0.188857 -0.00713726
-53.067 140.053 26.392 0.931597 0.187597 0.311344
-46.321 125.305 25.834 0.900297 0.0939732 0.42501
-46.455 126.721 25.692 0.908309 0.196389 0.369332
-46.723 128.128 25.35 0.90589 0.222197 0.360544
-46.916 129.554 25.036 0.890168 0.293109 0.348837
60.535 66.482 11.144 0.963484 0.201096 -0.176801
59.734 69.216 11.135 0.928679 0.344496 -0.137398
59.518 69.651 11.119 0.846076 0.515876 -0.134266
60.199 67.85 11.139 0.951552 0.270551 -0.146117
-61.485 175.719 -60.676 0.919435 0.364053 -0.148679
-62.555 176.839 -61.167 0.610594 0.475441 -0.633349
-62.188 177.235 -59.622 0.899415 0.43665 0.019747
-28.372 156.641 -0.811 0.444937 -0.623257 0.643103
-30.154 157.156 -11.039 0.116954 -0.755768 -0.644311
40.546 86.051 32.335 0.841325 0.102769 0.53067
57.267 55.257 22.877 0.805776 -0.271065 0.526545
57.446 56.657 23.148 0.795993 -0.203501 0.570072
41.549 72.494 30.12 0.856908 -0.0657771 0.511256
57.612 58.059 23.41 0.77185 -0.165354 0.613926
57.731 59.418 23.589 0.789883 -0.172517 0.588492
57.886 60.794 23.844 0.82698 -0.136018 0.54553
-20.422 38.482 -7.425 0.0319147 -0.999444 -0.00965762
-21.423 38.518 -7.656 0.021484 -0.999536 -0.0216101
-20.696 38.584 -9.427 0.0143855 -0.998514 -0.0525584
-68.111 112.409 45.126 0.418395 -0.856473 0.302322
38.627 67.271 34.684 0.799105 -0.0192774 0.600882
19.051 78.191 52.212 0.586788 -0.0154344 0.809593
19.034 76.835 52.191 0.601256 -0.0492447 0.797538
12.831 39.136 44.581 0.151601 -0.0980337 0.983568
34.017 106.064 31.767 0.717274 0.405012 0.566995
-17.951 175.707 -17.347 0.57605 0.171936 0.799127
35.964 98.11 34.624 0.811917 0.309857 0.494751
-3.643 90.133 -35.626 0.214062 0.258852 -0.941898
-2.815 89.613 -35.577 0.192699 0.209147 -0.95871
-3.813 89.629 -35.735 0.182691 0.196714 -0.96329
30.91 88.937 43.094 0.274155 -0.0166576 0.961541
-70.71 149.836 -41.425 -0.1295 -0.942784 -0.307225
57.949 62.146 23.937 0.851158 -0.0399981 0.523384
57.935 63.488 23.922 0.837657 0.0684272 0.541893
57.85 64.824 23.814 0.817873 0.175305 0.548044
57.645 66.139 23.521 0.778337 0.291105 0.556282
57.346 67.429 23.114 0.732845 0.392988 0.555426
-63.207 143.892 -8.37 0.830323 -0.42591 -0.359396
-63.008 142.674 -7.057 0.75896 -0.171008 -0.62828
46.933 51.167 30.779 0.555261 -0.390768 0.734156
41.448 87.304 30.15 0.891195 0.163643 0.423076
40.5 76.619 32.164 0.834902 -0.0364379 0.549192
40.529 77.972 32.236 0.839428 -0.0546792 0.540713
35.091 102.085 33.348 0.735515 0.396834 0.549127
35.231 64.664 38.564 0.689988 -0.0796613 0.719424
29.635 107.455 36.004 0.653923 0.31947 0.685801
-52.673 67.852 -12.934 -0.0828186 -0.658374 -0.748121
22.681 61.891 46.769 0.642147 0.058845 0.764319
22.682 60.545 46.76 0.681793 -0.0569212 0.729327
-40.147 163.848 3.262 0.697786 -0.205392 0.686228
22.581 63.22 46.629 0.560172 0.170701 0.810598
24.724 54.972 42.625 0.566008 -0.443248 0.695102
25.141 56.415 43.248 0.505554 -0.406542 0.761012
25.486 57.806 43.747 0.444211 -0.338373 0.829566
28.594 64.631 43.03 0.574993 0.0306168 0.817585
45.386 41.347 8.245 0.491365 -0.858499 -0.146765
43.556 69.595 25.983 0.800756 0.127754 0.585208
-82.131 152.65 5.763 -0.442147 0.820653 -0.361988
-72.887 143.976 -11.975 -0.647541 -0.742754 -0.170316
-72.658 143.932 -13.021 -0.649312 -0.690514 -0.318723
-71.726 143.977 -13.928 -0.532353 -0.743078 -0.405505
-72.523 143.597 -10.416 -0.444719 -0.878452 -0.174779
-46.011 126.697 24.521 0.906946 0.21073 0.364748
-46.232 128.102 24.27 0.908209 0.230012 0.349645
44.538 91.735 0.179 0.949461 0.219803 -0.224079
-46.344 129.406 23.476 0.920636 0.224512 0.319413
-46.019 128.067 23.625 0.930629 0.248518 0.268641
23.997 76.854 48.83 0.514863 -0.177109 0.838778
23.142 76.86 49.319 0.502639 -0.172501 0.847111
-29.915 155.169 -1.314 0.494927 -0.655018 0.570963
9.909 81.958 54.804 0.393966 -0.0653609 0.916798
10.016 83.32 54.969 0.452036 -0.145304 0.880085
-48.265 136.372 15.997 0.869246 0.479483 0.120447
11.856 88.726 54.158 0.38536 0.18196 0.904648
-89.811 143.072 29.651 -0.930668 0.0883201 0.355045
-89.541 143.417 30.169 -0.928208 0.162444 0.334726
-89.667 144.435 29.463 -0.89183 0.216861 0.397001
14.261 79.423 54.06 0.198348 0.241776 0.949843
-76.711 165.247 -22.942 -0.699802 0.63874 0.319825
-76.512 164.562 -20.853 -0.787129 0.553484 0.272184
-75.571 165.165 -20.154 -0.586208 0.740171 0.329406
-56.722 57.506 9.683 -0.607296 -0.771556 0.189453
-67.649 65.582 -4.077 -0.513225 -0.585017 -0.627977
-67.981 65.337 -3.564 -0.576075 -0.59322 -0.562341
-68.434 66.774 -4.541 -0.539544 -0.618197 -0.571599
-24.324 41.546 54.071 -0.0457858 0.160823 0.985921
36.713 54.755 31.784 0.570909 -0.217708 0.791622
47.238 52.583 31.235 0.539162 -0.270981 0.797417
-30.565 38.324 34.14 -0.0199333 -0.994567 0.102175
16.827 65.891 50.636 0.532418 -0.193235 0.82413
13 41.934 44.836 0.126759 0.0425597 0.99102
25.713 59.191 44.093 0.423046 -0.263978 0.866803
26.358 57.787 43.25 0.497354 -0.348939 0.79428
-74.95 66.128 9.445 -0.746414 -0.664033 0.0438894
17.322 69.983 51.402 0.537418 -0.0576388 0.841344
-92.343 115.998 11.318 -0.919332 -0.344577 -0.189989
17.679 74.046 51.976 0.23097 -0.399793 0.887028
18.011 75.463 52.453 0.340724 -0.284679 0.896027
43.583 72.292 25.986 0.917828 -0.058158 0.392695
13.717 92.694 51.591 0.375646 0.437697 0.816891
47.415 53.981 31.499 0.461769 -0.179228 0.868704
43.554 70.935 25.915 0.898821 -0.0174943 0.437967
12.831 71.271 53.697 0.349391 -0.108138 0.930716
-85.501 79.227 17.503 -0.84724 -0.495607 0.191199
45.403 45.723 -1.842 0.40727 -0.741588 -0.533084
45.496 44.387 0.424 0.405955 -0.76951 -0.493006
44.474 43.872 0.52 0.339024 -0.778498 -0.528208
59.947 69.218 14.157 0.90573 0.423806 0.00651684
34.743 103.404 32.842 0.724305 0.414355 0.551083
34.37 104.711 32.32 0.721847 0.414339 0.554311
-15.544 165.408 -12.133 0.241815 0.69248 0.679703
-12.048 177.175 -22.849 0.698727 0.346089 0.626101
31.858 98.18 39.212 0.660097 0.393429 0.639911
31.52 99.491 38.731 0.686022 0.426996 0.589108
31.138 100.809 38.172 0.66444 0.494328 0.560499
41.595 85.982 30.355 0.897142 0.115489 0.426377
20.768 44.973 42.052 0.511413 0.157515 0.844775
46.259 83.441 9.176 0.997636 0.068124 0.00899299
46.121 84.831 9.175 0.996663 0.0809752 0.0103305
46.021 86.226 9.171 0.995842 0.0756851 0.0507015
-88.792 137.8 11.205 -0.902161 0.270797 -0.33582
-48.387 34.875 43.758 0.134083 -0.955234 0.263721
16.129 60.403 49.573 0.327546 -0.200634 0.923288
16.314 61.771 49.86 0.413594 -0.26114 0.872208
46.962 73.549 8.23 0.873953 0.453602 -0.1745
47.119 72.809 6.978 0.708038 0.649752 -0.276594
10.878 80.643 54.46 0.379757 0.126944 0.916335
-42.062 154.724 -8.481 -0.222102 -0.481368 -0.847913
-29.579 174.217 -6.007 0.779946 -0.323445 0.535787
-29.3 175.699 -5.591 0.768953 -0.234599 0.594706
22.587 38.897 38.316 0.715144 -0.595982 0.365205
-29.924 172.727 -6.522 0.778225 -0.355105 0.517945
-26.623 45.026 -28.096 0.0183528 0.531344 -0.846957
-27.625 45.018 -28.095 0.000198192 0.572793 -0.8197
-10.261 128.766 1.597 -0.20871 0.944398 -0.254072
-30.25 171.23 -7.02 0.755161 -0.279876 0.592791
-30.858 171.231 -6.139 0.780612 -0.334764 0.527805
-62.625 150.596 -21.578 0.957388 -0.285607 -0.0428644
-13.446 38.815 -8.188 0.0454047 -0.998821 -0.01715
-14.169 38.751 -6.413 0.0594523 -0.997868 -0.0269277
-14.488 38.77 -8.358 0.0101508 -0.999448 -0.0316291
-26.161 38.143 54.147 -0.140752 -0.0426753 0.989125
-24.943 38.089 54.324 -0.0591692 -0.0220945 0.998003
-24.217 38.767 54.248 0.0729467 0.042543 0.996428
-24.234 40.168 54.184 0.0143741 0.0544291 0.998414
-25.472 40.077 54.141 -0.0477957 0.0834069 0.995369
-23.064 40.241 54.124 0.0992696 0.00346496 0.995055
-23.086 41.633 54.07 0.0920861 0.111971 0.989436
22.42 43.039 -12.73 0.703858 -0.683883 -0.192064
22.673 43.062 -11.732 0.654216 -0.729028 -0.201294
21.679 41.535 -11.726 0.856821 -0.492077 -0.154009
-30.114 166.809 -6.844 0.505709 0.334036 0.795411
45.556 78.849 21.795 0.961109 0.0165399 0.275674
45.142 77.555 22.966 0.93931 -0.0560571 0.338458
-30.355 168.269 -7.192 0.635972 0.143369 0.758277
-31.109 169.745 -6.524 0.729 -0.129262 0.672198
-30.426 169.744 -7.296 0.681957 -0.0420625 0.730182
45.066 76.193 22.871 0.936012 -0.086711 0.341119
-58.29 41.136 18.71 -0.485557 0.745679 0.456287
-56.466 42.318 18.689 -0.458458 0.819618 0.343573
19.047 79.537 52.221 0.547208 0.0857192 0.832596
17.008 67.259 50.913 0.485973 -0.246066 0.838619
17.206 68.625 51.216 0.482052 -0.220363 0.847978
13.869 49.008 46.176 0.47864 -0.524905 0.703831
43.631 73.651 26.072 0.926268 -0.0669317 0.370874
-69.37 141.497 -8.933 -0.251592 -0.807178 -0.534008
-25.186 160.795 -13.957 0.0674077 -0.654125 -0.753377
41.573 73.852 30.191 0.864225 -0.0191736 0.50274
40.119 90.035 31.805 0.892437 0.149296 0.425754
-22.53 159.751 -2.838 0.555526 0.219232 0.802078
-28.977 174.216 -6.892 0.780632 -0.334568 0.5279
41.169 89.963 29.736 0.878883 0.115221 0.462914
41.088 91.298 29.628 0.870874 0.111005 0.478808
3.79 36.718 46.186 0.181679 -0.0497216 0.9821
45.069 80.562 23.164 0.941895 0.0567399 0.331079
44.929 81.953 23.16 0.947281 0.0539957 0.31582
44.682 80.427 24.129 0.927365 0.0281043 0.3731
43.85 81.834 26.268 0.921921 -0.0262611 0.386488
33.677 107.392 31.272 0.691384 0.400071 0.601607
33.324 108.715 30.764 0.68949 0.407753 0.598616
44.218 83.302 25.17 0.944906 0.0159624 0.326951
44.195 84.7 25.158 0.938681 0.064476 0.338703
-12.346 178.658 -23.274 0.72158 0.303819 0.622106
-12.613 180.121 -23.626 0.759587 0.309275 0.572168
21.665 41.637 -12.694 0.860065 -0.494827 -0.124235
32.982 110.047 30.266 0.712769 0.397205 0.57809
32.645 111.384 29.767 0.728169 0.427335 0.535868
-80.631 139.432 47.402 -0.40772 0.56292 0.718947
-81.255 138.069 48.059 -0.436815 0.528411 0.727994
40.29 69.864 31.835 0.892131 -0.0793351 0.444757
-75.654 67.992 3.942 -0.786104 -0.566226 -0.247848
-74.755 67.415 2.534 -0.766211 -0.576259 -0.284334
-74.504 66.984 3.285 -0.691153 -0.695417 -0.196727
-14.06 38.299 23.179 0.0119104 -0.999288 0.0357933
-14.649 38.458 24.721 0.00750757 -0.998182 0.0598079
-15.061 38.334 22.942 0.0276257 -0.999304 0.0250638
-9.953 166.81 -21.72 0.614446 -0.753112 -0.235114
-9.047 168.146 -21.717 0.949458 -0.312486 0.0296882
44.509 94.56 16.155 0.97504 0.205214 0.0847573
56.142 49.398 14.189 0.763963 -0.643723 0.0445072
56.147 49.393 13.19 0.773224 -0.634087 -0.00761894
57.248 50.89 14.187 0.833027 -0.55214 0.0347503
57.243 50.891 13.186 0.833993 -0.55177 -0.0021307
-62.493 153.672 -31.606 0.941582 -0.28291 -0.182718
41.633 79.255 30.333 0.904406 -0.04163 0.424638
-77.649 163.935 -23.933 -0.919094 0.32978 0.215666
-45.171 34.712 41.146 0.0140231 -0.992608 0.120549
-46.245 34.596 41.014 0.0345948 -0.996033 0.081989
-45.607 34.582 39.419 0.0110215 -0.999935 -0.00285135
-51.668 152.149 12.883 0.717447 0.455669 0.526911
-50.963 152.153 12.145 0.586113 0.350923 0.730291
-49.316 137.038 4.424 0.922748 0.263206 -0.281529
45.75 80.592 3.199 0.980693 0.0403274 -0.191349
60.562 60.935 16.173 0.98277 -0.102335 0.153918
-86.563 81.991 16.486 -0.986257 -0.111087 0.122297
-62.866 101.101 -18.216 -0.337433 -0.0116152 -0.941278
-12.349 183.911 -26.432 0.731083 0.673549 0.108855
-11.426 182.822 -27.636 0.83839 0.536033 0.0988448
-22.818 161.021 -3.309 0.275054 0.756012 0.593962
-71.472 152.551 -44.916 -0.887116 -0.25776 -0.382864
-71.232 151.001 -43.7 -0.711534 -0.515695 -0.47726
13.395 90.075 52.885 0.577997 0.25202 0.776148
-36.339 34.467 32.718 0.0929721 -0.995452 0.0207645
-35.7 34.441 31.109 0.17732 -0.981534 0.0717582
-26.143 168.232 -18.189 -0.225652 -0.363159 -0.903989
-21.964 40.307 53.943 0.232691 0.00358999 0.972544
-24.201 37.365 54.226 0.0538264 -0.0619827 0.996625
-39.057 156.263 -10.085 -0.154499 -0.540198 -0.827234
44.998 41.309 7.25 0.492738 -0.85714 -0.150066
-53.544 44.416 -8.092 -0.355687 0.47693 -0.803756
-53.549 45.819 -7.343 -0.419572 0.386893 -0.821142
-52.539 45.869 -7.837 -0.437505 0.347633 -0.829302
27.796 83.566 45.536 0.769997 -0.0110242 0.637952
28.258 63.629 -20.796 0.643307 0.14205 -0.752315
27.856 64.312 -20.961 0.662508 0.147796 -0.734329
27.815 64.993 -20.878 0.689914 -0.0502387 -0.722146
45.159 78.919 23.039 0.942298 0.00731483 0.334695
17.204 61.784 49.393 0.451336 -0.178037 0.874413
34.683 106.039 30.986 0.704333 0.373567 0.603625
-33.186 155.11 0.984 0.469743 -0.486662 0.736547
35.012 104.701 31.474 0.725914 0.401379 0.558519
-36.624 151.025 -2.987 0.435169 -0.883041 -0.175687
50.24 58.152 30.355 0.408504 -0.0872264 0.908579
50.166 56.778 30.228 0.4489 -0.122932 0.885086
58.076 56.603 22.234 0.85456 -0.229425 0.465931
57.826 55.226 21.933 0.840249 -0.299292 0.452113
58.244 58.034 22.564 0.840869 -0.186433 0.508116
58.36 59.396 22.74 0.829049 -0.131793 0.543423
30.354 94.249 42.282 0.559045 0.262639 0.786441
12.599 45.941 44.346 0.338831 -0.40644 0.848528
58.497 63.454 22.981 0.869804 0.0434571 0.49148
48.793 49.707 28.173 0.599431 -0.497547 0.627001
49.858 54.01 29.762 0.529671 -0.281773 0.800033
49.557 52.598 29.319 0.573162 -0.373821 0.729207
49.205 51.16 28.794 0.605111 -0.433335 0.667879
33.485 80.891 41.436 0.674667 0.0557946 0.73601
33.406 82.226 41.33 0.688602 0.0780166 0.72093
57.236 52.316 20.181 0.826808 -0.477575 0.297172
57.959 53.786 20.179 0.887319 -0.374483 0.269124
32.989 92.935 40.813 0.610409 0.308203 0.729665
32.733 94.263 40.444 0.607668 0.313766 0.729583
32.474 95.557 40.088 0.610191 0.344426 0.713469
-49.306 147.765 11.005 0.79143 -0.217924 0.571093
33.653 110.026 29.489 0.705605 0.424184 0.567617
33.287 111.381 28.922 0.726953 0.450845 0.517956
48.265 48.211 27.375 0.556607 -0.571345 0.60312
58.415 64.788 22.872 0.853659 0.152128 0.49812
58.25 66.105 22.658 0.816164 0.253296 0.519343
54.488 71.615 6.181 0.262529 0.858502 -0.440514
53.557 47.794 7.213 0.643951 -0.747742 -0.161893
45.632 87.599 13.162 0.994734 0.0827171 0.0605223
45.752 86.206 13.164 0.994249 0.0910414 0.056402
60.911 62.353 13.159 0.998019 -0.0295581 0.0555387
59.115 70.561 14.025 0.807963 0.589224 -0.00318562
22.976 75.488 49.074 0.542385 -0.174751 0.821754
54.459 58.178 27.656 0.72173 -0.143146 0.677212
54.562 59.542 27.824 0.699082 -0.0888098 0.709505
-51.226 150.712 13.515 0.836608 0.332692 0.435204
-50.492 149.246 12.837 0.862924 0.10347 0.494627
-50.651 150.706 12.567 0.770741 0.26952 0.577337
-52.224 152.155 13.844 0.798153 0.488043 0.353223
-51.716 150.726 14.584 0.874051 0.345975 0.34108
-53.481 49.136 33.659 -0.310964 0.949042 0.051191
-51.492 50.399 33.682 -0.635278 0.693282 0.340268
-61.658 172.539 -56.588 0.9826 0.104625 0.153464
46.86 46.738 27.082 0.495262 -0.628045 0.60023
46.762 46.283 26.631 0.461434 -0.686915 0.56145
57.983 67.408 22.273 0.775508 0.367395 0.513428
-62.547 177.823 -60.338 0.767701 0.507188 -0.391658
-12.412 38.265 16.318 -0.0054832 -0.999912 -0.0121013
-13.087 38.262 17.992 -0.0320515 -0.999378 -0.0147083
-13.407 38.301 16.082 -0.0488969 -0.998792 -0.00481283
-19.876 105.865 -22.596 -0.0591854 0.204409 -0.977095
-19.87 104.468 -22.805 0.00338528 0.246481 -0.969142
-20.987 40.34 53.605 0.317274 0.0182959 0.948157
-21.01 41.733 53.591 0.310642 0.0538804 0.948999
-14.359 102.532 43.373 -0.105149 0.124829 0.986591
34.388 107.359 30.569 0.68827 0.395185 0.608369
-15.354 33.772 -22.627 0.016745 -0.9978 0.0641457
27.678 117.119 29.881 0.489935 0.682773 0.542018
26.227 117.277 30.793 0.438194 0.669945 0.599299
-59.73 73.773 -17.073 -0.192675 -0.466855 -0.863089
-58.715 72.341 -16.523 -0.144508 -0.518533 -0.842758
-77.62 171.284 -36.89 -0.543932 0.760359 0.354955
58.987 60.729 21.951 0.894748 -0.0771699 0.439853
59.297 60.837 21.166 0.943389 -0.0371165 0.329606
-33.869 101.48 -22.225 -0.140051 0.23831 -0.961038
-34.87 101.474 -22.105 -0.155213 0.283814 -0.946234
-61.854 174.099 -56.596 0.960739 0.190667 0.201563
36.533 98.083 33.685 0.777612 0.292993 0.556304
36.792 96.754 34.065 0.771724 0.359512 0.524589
37.176 95.465 34.581 0.779617 0.387868 0.491686
37.494 94.147 35.05 0.793359 0.306821 0.525779
43.243 95.871 0.187 0.901947 0.292192 -0.317987
50.054 55.397 30.056 0.490227 -0.199706 0.848408
25.916 43.492 37.174 0.795559 -0.36603 0.482812
-13.204 171.245 -25.107 -0.469456 -0.509575 -0.721072
-61.097 169.393 -58.599 0.992998 -0.0248641 0.115485
-61.193 167.783 -58.584 0.992857 -0.0878429 0.0807336
-17.171 43.261 52.118 0.340024 0.221387 0.913987
37.952 88.823 35.669 0.811272 0.0148593 0.58448
37.859 91.495 35.553 0.831686 0.12944 0.539947
33.501 79.546 41.45 0.683262 -0.0338115 0.72939
30.28 50.631 36.529 0.585992 -0.404289 0.702257
-87.109 106.357 15.357 -0.911975 0.387385 0.135039
-86.935 106.366 16.362 -0.92821 0.36175 0.0869656
-86.583 107.7 15.354 -0.977121 0.177977 0.116438
-92.579 117.47 34.305 -0.942436 -0.316895 -0.106735
-92.7 117.475 35.303 -0.948051 -0.313185 -0.0558115
-92.918 118.828 34.296 -0.981657 -0.160509 -0.102892
-38.082 159.224 -12.032 -0.255725 -0.427434 -0.867125
27.461 41.773 32.346 0.677686 -0.579247 0.453006
26.919 41.815 33.316 0.711139 -0.579645 0.39786
26.193 40.275 32.238 0.661353 -0.638561 0.393513
33.253 91.616 41.193 0.632318 0.276577 0.723657
-10.288 172.711 -21.88 0.713321 0.422039 0.559514
-9.563 172.645 -22.784 0.817619 0.35476 0.45348
-10.385 174.149 -22.798 0.72426 0.408279 0.555657
34.02 108.707 30.007 0.68667 0.420396 0.593086
46.406 77.855 9.187 0.998097 0.0379361 -0.0486198
46.348 79.249 9.182 0.999498 0.00606617 -0.0310796
46.387 80.654 9.179 0.99913 0.0238 -0.0342432
46.311 82.048 9.179 0.998297 0.0582779 -0.00240014
39.229 108.358 10.165 0.845657 0.533724 -0.00185586
-49.885 149.233 11.908 0.79553 0.0540562 0.603498
-49.969 150.693 11.804 0.657967 0.144524 0.739048
-50.153 152.144 11.574 0.499579 0.244258 0.831119
-13.526 162.053 -12.743 0.760934 -0.637891 0.118639
-14.617 161.254 -11.52 0.681715 -0.711291 0.171261
18.896 37 -12.684 0.870645 -0.477315 -0.11894
19.127 37.048 -11.679 0.845483 -0.510378 -0.157074
-20.001 38.974 53.287 0.29675 0.0471206 0.953792
-20.022 40.37 53.255 0.32358 0.0280463 0.945785
-20.04 41.764 53.237 0.309485 0.0479861 0.949693
-22.924 97.207 44.901 -0.171933 0.22682 0.958641
-21.655 97.21 44.97 -0.169395 0.487276 0.85666
-70.937 99.536 40.344 -0.367642 0.384615 0.846705
36.31 99.411 33.375 0.775678 0.304239 0.552958
11.241 122.679 33.948 0.250163 0.633226 0.732423
-22.433 37.172 54.105 0.225423 -0.159906 0.961049
40.945 95.751 28.163 0.850862 0.282723 0.442834
40.386 96.627 28.672 0.855326 0.289647 0.429561
47.325 49.735 29.573 0.568032 -0.500367 0.653431
47.712 51.149 30.145 0.585069 -0.401295 0.704738
48.016 52.569 30.602 0.597657 -0.329391 0.730963
-62.807 166.262 -41.591 0.924435 0.36514 0.109969
-26.215 51.942 -26.421 -0.715252 -0.152962 -0.681921
-26.575 53.399 -26.392 -0.74371 -0.177384 -0.644539
-25.652 52.095 -26.997 -0.635727 -0.194595 -0.746983
41.328 69.753 29.756 0.872732 -0.142293 0.467003
41.208 68.403 29.635 0.884126 -0.13574 0.447098
41.089 67.031 29.446 0.880224 -0.100628 0.463767
-17.584 169.785 -15.094 0.391205 0.487278 0.780717
41.469 71.138 30.016 0.86294 -0.130766 0.488092
-18.025 171.268 -15.721 0.457217 0.390683 0.798949
43.716 75.011 26.173 0.926372 -0.0428193 0.374168
43.697 76.36 26.16 0.907862 0.00632821 0.419222
28.423 53.525 39.147 0.464763 -0.495098 0.73408
38.582 65.917 34.606 0.818254 -0.11368 0.563505
27.348 110.085 36.206 0.467196 0.556557 0.687002
26.474 110.098 36.703 0.335949 0.573718 0.746985
43.688 77.718 26.22 0.906896 -0.027926 0.420429
-35.009 168.257 -1.643 0.800126 -0.335618 0.497151
22.49 67.24 46.522 0.724952 -0.237562 0.646536
37.965 87.479 35.678 0.786926 0.00869231 0.616986
-46.296 162.745 -7.898 -0.607872 0.144489 -0.780778
-46.107 164.061 -7.799 -0.635622 0.19755 -0.746297
-45.191 163.637 -8.589 -0.615407 0.131361 -0.777186
33.429 78.195 41.341 0.713178 -0.120028 0.69063
29.911 49.159 35.971 0.658811 -0.388201 0.644414
32.766 70.034 40.323 0.537983 -0.0404814 0.841983
32.795 71.385 40.37 0.475484 -0.0388128 0.878868
30.654 52.099 37.091 0.57309 -0.429819 0.697727
32.779 72.728 40.356 0.484536 -0.0537962 0.873115
32.87 74.067 40.495 0.599278 -0.196258 0.776111
33.119 75.469 40.877 0.724584 -0.27417 0.632305
33.307 76.838 41.162 0.739952 -0.1993 0.642456
41.276 104.245 13.161 0.900329 0.428235 0.0776005
-35.351 166.776 -2.143 0.799718 -0.314167 0.511616
-38.075 160.73 -12.76 -0.372724 -0.290962 -0.881146
59.111 58.04 6.175 0.911797 -0.30177 -0.278497
59.488 59.457 6.168 0.932931 -0.216908 -0.287385
57.554 53.733 6.183 0.913117 -0.304576 -0.27102
-53.089 53.089 -6.438 -0.686243 -0.128412 -0.715947
-52.576 53.026 -6.865 -0.58544 -0.153082 -0.796132
-52.942 51.663 -6.388 -0.622367 0.00982397 -0.782664
-83.213 77.017 19.402 -0.699072 -0.683795 0.2091
-33.711 65.296 -16.52 -0.820755 -0.293694 -0.490005
-26.115 158.145 -1.045 0.48434 -0.462415 0.742689
-27.557 156.658 -1.397 0.450447 -0.612851 0.649239
-49.192 149.222 11.153 0.703524 -0.0359521 0.709761
-49.218 150.688 11.15 0.613191 0.0374845 0.789045
-49.28 152.135 11.083 0.517333 0.144347 0.843523
-40.034 34.461 33.705 -0.0371896 -0.99876 0.0330993
35.711 102.065 32.488 0.75198 0.383669 0.536026
-55.714 70.932 -15.689 0.0612673 -0.591414 -0.804037
-54.718 70.899 -15.597 0.104133 -0.592159 -0.799064
-2.693 38.646 25.195 0.0384205 -0.998531 0.0382079
-3.694 38.681 24.959 0.0118813 -0.999279 0.0360711
42.707 83.154 -5.792 0.908141 -0.125255 -0.399489
42.947 84.577 -5.791 0.916858 -0.0834801 -0.390388
43.167 83.196 -4.776 0.92755 -0.120062 -0.353887
-9.204 175.559 -28.798 0.752975 -0.0870916 -0.652261
-21.197 36.319 53.499 0.207815 -0.540549 0.815242
-41.624 172.695 -5.003 -0.560786 0.827345 -0.0319204
-41.617 172.68 -5.99 -0.597668 0.800224 -0.0493472
-19.047 40.404 52.92 0.312343 0.0173977 0.94981
-19.019 41.811 52.943 0.296161 0.0393762 0.954326
-19.101 43.193 52.831 0.315146 0.167253 0.934189
-38.124 162.196 -12.985 -0.446624 -0.152902 -0.88156
-50.891 47.408 18.648 -0.89207 0.388759 -0.230386
-51.562 46.058 18.677 -0.820101 0.54361 -0.17867
37.986 86.131 35.647 0.765704 0.0301298 0.642487
38.025 84.795 35.721 0.738935 0.0388212 0.672658
40.002 91.366 31.554 0.890674 0.136226 0.433754
42.112 46.731 30.799 0.360693 -0.626023 0.691372
28.418 83.543 44.679 0.803397 0.0437634 0.593833
37.385 82.128 36.558 0.719148 0.0361002 0.693918
37.347 83.464 36.489 0.71728 0.0355805 0.695876
28.424 82.2 44.683 0.682991 0.072068 0.726863
18.198 76.837 52.735 0.455468 -0.12613 0.881272
37.936 90.163 35.657 0.824283 0.0511521 0.563863
44.615 76.244 23.944 0.927646 -0.0801505 0.364759
44.71 78.967 24.116 0.912858 0.00587758 0.408235
44.699 77.618 24.115 0.9203 -0.0484271 0.388205
31.043 53.558 37.671 0.589401 -0.418232 0.69115
31.389 54.964 38.183 0.569606 -0.433223 0.698475
29.579 47.722 35.476 0.711838 -0.388754 0.584941
29.187 46.261 34.893 0.739495 -0.44416 0.505835
28.701 44.746 34.139 0.733788 -0.509426 0.449489
28.086 43.254 33.245 0.710408 -0.555955 0.431549
33.423 90.3 41.424 0.669455 0.191793 0.717666
39.158 108.387 12.165 0.851719 0.522239 0.0429066
33.613 87.633 41.69 0.699441 -0.000149877 0.71469
38.055 83.451 35.747 0.728407 0.0366695 0.684162
38.067 82.107 35.756 0.724758 0.0372264 0.687997
17.077 84.764 51.153 0.320912 0.348144 0.880801
17.404 83.46 51.621 0.313218 0.371711 0.873914
-31.777 169.741 -5.739 0.758868 -0.266008 0.59444
10.928 61.683 52.631 0.676569 -0.262853 0.687869
-48.463 149.215 10.466 0.70426 -0.157735 0.692197
-48.396 150.684 10.582 0.603346 -0.0176305 0.797284
-48.425 152.144 10.565 0.519517 0.0892206 0.849789
-48.578 153.602 10.373 0.429218 0.221019 0.875741
-61.625 175.734 -59.686 0.955671 0.253782 0.149293
36.036 100.737 32.976 0.767718 0.35789 0.53153
44.544 74.884 23.85 0.934897 -0.0645149 0.349007
25.92 40.624 33.327 0.706954 -0.61694 0.345834
43.718 94.48 0.197 0.901381 0.304382 -0.307999
-28.155 175.62 -17.52 -0.5462 0.209368 -0.811067
-27.164 175.63 -18.169 -0.546835 0.156127 -0.822554
-14.957 89.738 -37.365 -0.0166688 0.447945 -0.893906
-13.928 88.37 -38.028 0.018381 0.386571 -0.922076
-14.961 88.367 -38.038 0.00451073 0.397263 -0.917694
-38.158 163.687 -13.159 -0.508779 -0.0468333 -0.859622
-27.105 162.286 -15.104 -0.0203329 -0.476643 -0.878862
-27.112 163.77 -15.875 -0.0807325 -0.428614 -0.899873
-18.032 40.453 52.614 0.33368 -0.0127678 0.9426
-48.017 133.707 4.901 0.854731 0.461926 -0.236768
-18.047 41.846 52.606 0.332178 0.0555802 0.941578
-18.132 43.229 52.481 0.345815 0.189531 0.918961
38.126 80.772 35.847 0.726246 0.0364884 0.686466
45.083 46.39 28.048 0.444727 -0.696322 0.563341
44.518 72.18 23.782 0.924527 0.0347473 0.379528
58.908 59.368 21.791 0.881535 -0.146248 0.448895
-79.909 70.649 13.225 -0.750372 -0.660986 -0.00627036
-79.884 70.637 14.553 -0.756458 -0.651718 0.0550842
-41.181 166.655 -11.121 -0.565202 0.170102 -0.807225
-64.012 136.992 -7.634 0.235997 0.0823433 -0.968259
46.199 75.031 5.189 0.976609 0.0718147 -0.202676
